ply
        format ascii 1.0
        element vertex 47990
        property float x
        property float y
        property float z
        property uchar red
        property uchar green
        property uchar blue
        end_header
0.617347 -0.714286 -2.612245 77 74 31 
0.622449 -0.714286 -2.612245 78 76 30 
0.630769 -0.717949 -2.625641 76 73 30 
0.642487 -0.725389 -2.652850 76 72 30 
0.647668 -0.725389 -2.652850 76 72 34 
0.663158 -0.736842 -2.694737 76 72 35 
0.668421 -0.736842 -2.694737 75 71 36 
0.688172 -0.752688 -2.752688 75 70 36 
0.689840 -0.748663 -2.737968 75 71 37 
0.691489 -0.744681 -2.723404 76 72 37 
2.777778 -1.555556 -5.688889 68 66 36 
2.918605 -1.627907 -5.953488 68 68 37 
3.000000 -1.666667 -6.095238 66 68 37 
3.123457 -1.728395 -6.320988 63 66 35 
2.988235 -1.647059 -6.023530 62 65 34 
2.897727 -1.590909 -5.818182 62 64 33 
1.738853 -0.891720 -3.261147 32 32 24 
-2.620370 -1.305556 -4.740741 63 64 26 
-2.611111 -1.305556 -4.740741 59 58 20 
-2.626168 -1.317757 -4.785047 48 49 12 
-2.616822 -1.317757 -4.785047 38 39 6 
-3.100000 -1.566667 -5.688889 34 34 6 
-3.270588 -1.658823 -6.023530 25 25 6 
-3.147727 -1.602273 -5.818182 18 19 3 
-3.285714 -1.678571 -6.095238 15 16 1 
-3.353658 -1.719512 -6.243902 25 27 13 
-3.261905 -1.678571 -6.095238 27 30 18 
-9.275862 -4.862069 -17.655172 25 25 23 
-3.135803 -1.740741 -6.320988 38 32 23 
-3.085366 -1.719512 -6.243902 40 33 23 
-3.036144 -1.698795 -6.168674 41 34 23 
-3.024096 -1.698795 -6.168674 42 34 23 
-3.012048 -1.698795 -6.168674 17 10 6 
-3.036585 -1.719512 -6.243902 81 74 62 
-2.987952 -1.698795 -6.168674 170 163 130 
-3.087500 -1.762500 -6.400000 139 134 79 
-3.194805 -1.831169 -6.649351 136 133 64 
-5.105263 -3.710526 -13.473684 50 46 2 
-4.595238 -3.357143 -12.190476 50 46 5 
-4.682927 -3.439024 -12.487804 55 52 11 
-4.775000 -3.525000 -12.800000 61 58 16 
-4.418605 -3.279070 -11.906977 63 62 19 
-4.200000 -3.133333 -11.377778 65 63 19 
-3.666667 -2.764706 -10.039216 64 64 11 
-3.444444 -2.611111 -9.481482 68 69 9 
-3.303571 -2.517857 -9.142858 70 71 7 
-3.345454 -2.563636 -9.309091 69 71 3 
-3.155172 -2.431035 -8.827586 65 67 0 
-inf -inf -inf 79 78 40 
-inf -inf -inf 95 96 46 
-inf -inf -inf 97 97 42 
-inf -inf -inf 91 91 30 
-inf -inf -inf 85 86 16 
-1.470000 -1.410000 -5.120000 92 90 37 
-1.474747 -1.424242 -5.171717 92 90 38 
-1.479592 -1.438776 -5.224490 97 94 43 
-1.515790 -1.484210 -5.389474 101 97 47 
-6.785714 -10.071428 -36.571430 40 42 9 
-5.529412 -8.294118 -30.117647 27 27 5 
-5.812500 -8.812500 -32.000000 37 35 24 
-6.133333 -9.400000 -34.133335 35 32 25 
-6.066667 -9.400000 -34.133335 33 30 23 
-9.000000 -14.100000 -51.200001 34 32 20 
-8.090909 -12.818182 -46.545456 35 33 18 
-7.333333 -11.750000 -42.666668 34 31 19 
-6.692307 -10.846154 -39.384617 32 29 21 
-4.777778 -7.833333 -28.444445 31 28 22 
-6.071429 -10.071428 -36.571430 30 27 22 
-3.360000 -5.640000 -20.480000 31 28 20 
-3.320000 -5.640000 -20.480000 31 28 19 
-1.000000 -8.812500 -32.000000 25 30 22 
-1.153846 -10.846154 -39.384617 26 28 27 
-0.933333 -9.400000 -34.133335 25 27 23 
-0.812500 -8.812500 -32.000000 24 25 20 
-0.600000 -7.050000 -25.600000 23 24 19 
-0.647059 -8.294118 -30.117647 25 26 21 
-0.714286 -10.071428 -36.571430 25 25 23 
-0.562500 -8.812500 -32.000000 22 23 23 
1.000000 -2.711539 -9.846154 82 81 35 
1.000000 -2.660377 -9.660378 82 81 36 
1.038462 -2.711539 -9.846154 80 79 35 
1.057692 -2.711539 -9.846154 79 78 34 
1.056604 -2.660377 -9.660378 78 77 33 
1.075472 -2.660377 -9.660378 78 77 32 
1.054545 -2.563636 -9.309091 77 76 32 
1.035088 -2.473684 -8.982456 78 77 31 
1.034483 -2.431035 -8.827586 79 78 32 
1.016667 -2.350000 -8.533334 77 79 30 
1.016393 -2.311476 -8.393442 79 78 32 
1.050000 -2.350000 -8.533334 78 77 33 
0.389830 -0.796610 -2.892655 79 78 34 
0.393258 -0.792135 -2.876405 78 77 33 
0.396648 -0.787709 -2.860335 77 76 32 
0.395604 -0.774725 -2.813187 76 75 32 
0.401099 -0.774725 -2.813187 76 74 33 
0.400000 -0.762162 -2.767568 76 74 35 
0.398936 -0.750000 -2.723404 77 75 36 
0.406417 -0.754011 -2.737968 75 75 35 
0.407407 -0.746032 -2.708995 73 74 34 
0.410526 -0.742105 -2.694737 75 74 34 
4.409091 -6.409091 -23.272728 77 73 33 
3.769231 -5.423077 -19.692308 77 74 34 
3.807692 -5.423077 -19.692308 77 73 35 
4.166667 -5.875000 -21.333334 76 72 34 
3.884615 -5.423077 -19.692308 76 72 34 
0.588542 -0.734375 -2.666667 72 70 31 
0.580808 -0.712121 -2.585859 75 71 33 
0.622449 -0.719388 -2.612245 78 75 32 
0.645833 -0.734375 -2.666667 77 74 33 
0.647668 -0.730570 -2.652850 78 74 36 
0.656250 -0.734375 -2.666667 78 74 37 
0.682540 -0.746032 -2.708995 77 72 39 
0.687831 -0.746032 -2.708995 76 72 37 
6.333333 -5.875000 -21.333334 78 75 33 
2.747253 -1.549451 -5.626374 72 67 37 
2.820225 -1.584270 -5.752809 70 66 37 
3.000000 -1.678571 -6.095238 68 65 36 
3.085366 -1.719512 -6.243902 68 65 38 
2.919540 -1.620690 -5.885057 67 65 37 
2.833333 -1.566667 -5.688889 67 65 37 
-1.967105 -0.934211 -3.368421 155 150 86 
-1.947712 -0.928105 -3.346405 147 143 79 
-1.903846 -0.910256 -3.282051 143 139 75 
-2.669811 -1.339623 -4.830189 122 122 63 
-2.660377 -1.339623 -4.830189 118 118 63 
-2.650943 -1.339623 -4.830189 119 121 68 
-2.641510 -1.339623 -4.830189 127 130 80 
-3.170455 -1.613636 -5.818182 135 136 92 
-3.159091 -1.613636 -5.818182 86 90 50 
-3.112360 -1.595506 -5.752809 47 51 18 
-3.247059 -1.670588 -6.023530 22 25 1 
-3.235294 -1.670588 -6.023530 25 28 8 
-3.223529 -1.670588 -6.023530 25 28 12 
-2.976470 -1.670588 -6.023530 40 33 22 
-2.964706 -1.670588 -6.023530 40 33 21 
-2.952941 -1.670588 -6.023530 37 29 19 
-2.976191 -1.690476 -6.095238 15 7 4 
-2.964286 -1.690476 -6.095238 94 85 70 
-2.917647 -1.670588 -6.023530 167 160 125 
-2.975904 -1.710843 -6.168674 135 130 72 
-3.075000 -1.775000 -6.400000 135 132 63 
-4.974359 -3.641026 -13.128205 130 126 67 
-4.488372 -3.302325 -11.906977 135 132 72 
-4.465117 -3.302325 -11.906977 132 130 71 
-4.658536 -3.463415 -12.487804 127 125 65 
-4.318182 -3.227273 -11.636364 120 118 58 
-4.108696 -3.086957 -11.130435 115 114 51 
-3.916667 -2.958333 -10.666667 116 115 50 
-3.666667 -2.784314 -10.039216 122 120 54 
-3.444444 -2.629630 -9.481482 126 124 58 
-3.363636 -2.581818 -9.309091 130 127 65 
-3.285714 -2.535714 -9.142858 135 132 71 
-3.101695 -2.406780 -8.677966 141 138 80 
-inf -inf -inf 140 142 76 
-inf -inf -inf 139 140 74 
-inf -inf -inf 134 134 68 
-inf -inf -inf 130 129 63 
-inf -inf -inf 132 129 64 
-inf -inf -inf 137 134 68 
-inf -inf -inf 139 136 71 
-1.455446 -1.405941 -5.069307 140 140 69 
-1.460000 -1.420000 -5.120000 140 138 72 
-1.450000 -1.420000 -5.120000 141 138 74 
-5.937500 -8.875000 -32.000000 26 27 3 
-4.947369 -7.473684 -26.947369 24 23 2 
-5.470588 -8.352942 -30.117647 37 34 23 
-5.411765 -8.352942 -30.117647 34 31 23 
-5.055555 -7.888889 -28.444445 33 30 23 
-8.181818 -12.909091 -46.545456 34 31 20 
-5.933333 -9.466666 -34.133335 29 27 14 
-5.500000 -8.875000 -32.000000 30 27 16 
-5.800000 -9.466666 -34.133335 33 30 22 
-3.440000 -5.680000 -20.480000 31 28 24 
-7.727273 -12.909091 -46.545456 30 28 23 
-3.360000 -5.680000 -20.480000 30 28 21 
-3.608696 -6.173913 -22.260870 30 28 19 
-0.789474 -7.473684 -26.947369 28 28 27 
-0.736842 -7.473684 -26.947369 26 26 24 
-0.650000 -7.100000 -25.600000 25 26 24 
-0.571429 -6.761905 -24.380953 25 25 22 
-0.611111 -7.888889 -28.444445 24 24 22 
-0.769231 -10.923077 -39.384617 22 24 22 
-0.642857 -10.142858 -36.571430 22 24 23 
1.039216 -2.784314 -10.039216 80 78 33 
1.102041 -2.897959 -10.448979 78 75 32 
1.170213 -3.021277 -10.893617 79 77 34 
1.142857 -2.897959 -10.448979 80 79 35 
1.163265 -2.897959 -10.448979 79 78 34 
1.094340 -2.679245 -9.660378 79 78 34 
1.072727 -2.581818 -9.309091 79 78 33 
1.052632 -2.491228 -8.982456 80 79 33 
1.016667 -2.366667 -8.533334 80 79 33 
1.016393 -2.327869 -8.393442 78 77 33 
1.067797 -2.406780 -8.677966 80 77 34 
1.066667 -2.366667 -8.533334 78 75 34 
0.392045 -0.806818 -2.909091 77 76 32 
0.395480 -0.802260 -2.892655 77 76 32 
0.397790 -0.784530 -2.828729 76 74 32 
0.401099 -0.780220 -2.813187 75 73 32 
0.397849 -0.763441 -2.752688 76 74 34 
0.394737 -0.747368 -2.694737 76 74 35 
0.404255 -0.755319 -2.723404 75 75 35 
0.403141 -0.743455 -2.680628 74 75 35 
0.404145 -0.735751 -2.652850 75 74 33 
6.714286 -10.142858 -36.571430 77 74 33 
5.937500 -8.875000 -32.000000 76 73 32 
6.400000 -9.466666 -34.133335 76 73 32 
4.850000 -7.100000 -25.600000 77 73 34 
4.260870 -6.173913 -22.260870 76 72 34 
4.304348 -6.173913 -22.260870 76 72 34 
4.545455 -6.454545 -23.272728 75 71 33 
4.040000 -5.680000 -20.480000 76 72 34 
10.066667 -9.466666 -34.133335 76 73 30 
7.238095 -6.761905 -24.380953 77 74 31 
6.954545 -6.454545 -23.272728 77 74 31 
8.105263 -7.473684 -26.947369 77 74 31 
9.687500 -8.875000 -32.000000 76 73 30 
7.800000 -7.100000 -25.600000 76 73 30 
9.461538 -5.461538 -19.692308 68 67 36 
2.717391 -1.543478 -5.565217 70 66 36 
2.758242 -1.560440 -5.626374 69 65 36 
2.930233 -1.651163 -5.953488 68 64 36 
3.011905 -1.690476 -6.095238 68 64 37 
2.886364 -1.613636 -5.818182 67 63 36 
2.833333 -1.577778 -5.688889 67 63 36 
-2.033784 -0.966216 -3.459460 131 126 62 
-2.000000 -0.953333 -3.413333 129 124 60 
-2.006711 -0.959732 -3.436242 128 123 59 
-1.973510 -0.947020 -3.390728 130 125 61 
-1.941176 -0.934641 -3.346405 133 128 64 
-1.897436 -0.916667 -3.282051 137 132 67 
-2.695238 -1.361905 -4.876191 143 143 78 
-2.685714 -1.361905 -4.876191 143 142 79 
-2.676190 -1.361905 -4.876191 142 144 80 
-2.666667 -1.361905 -4.876191 147 150 88 
-3.134831 -1.606742 -5.752809 148 151 94 
-3.088889 -1.588889 -5.688889 68 72 28 
-3.112360 -1.606742 -5.752809 29 33 2 
-3.247059 -1.682353 -6.023530 20 23 2 
-3.235294 -1.682353 -6.023530 28 32 9 
-3.186047 -1.662791 -5.953488 29 32 16 
-2.913979 -1.537634 -5.505376 25 26 20 
-2.941860 -1.662791 -5.953488 40 34 23 
-2.964706 -1.682353 -6.023530 37 31 19 
-3.012048 -1.722892 -6.168674 28 18 10 
-2.964286 -1.702381 -6.095238 110 100 80 
-2.952381 -1.702381 -6.095238 161 152 115 
-3.012195 -1.743902 -6.243902 135 129 70 
-3.153846 -1.833333 -6.564103 136 132 63 
-5.105263 -3.763158 -13.473684 145 141 73 
-4.488372 -3.325581 -11.906977 146 143 74 
-4.465117 -3.325581 -11.906977 147 144 75 
-4.658536 -3.487805 -12.487804 146 143 74 
-4.418605 -3.325581 -11.906977 142 139 70 
-4.200000 -3.177778 -11.377778 139 136 67 
-4.000000 -3.042553 -10.893617 145 141 73 
-3.816327 -2.918367 -10.448979 147 143 76 
-3.509434 -2.698113 -9.660378 145 140 73 
-3.363636 -2.600000 -9.309091 143 139 71 
-3.345454 -2.600000 -9.309091 143 138 70 
-3.101695 -2.423729 -8.677966 143 139 69 
-inf -inf -inf 137 135 69 
-inf -inf -inf 137 135 68 
-inf -inf -inf 141 137 68 
-inf -inf -inf 141 137 67 
-inf -inf -inf 143 137 68 
-5.937500 -8.937500 -32.000000 24 25 0 
-4.947369 -7.526316 -26.947369 29 28 6 
-5.166667 -7.944445 -28.444445 35 33 20 
-4.842105 -7.526316 -26.947369 32 29 22 
-6.923077 -11.000000 -39.384617 31 29 18 
-4.684210 -7.526316 -26.947369 30 28 15 
-4.631579 -7.526316 -26.947369 31 29 19 
-5.117647 -8.411765 -30.117647 32 29 23 
-3.307692 -5.500000 -19.692308 30 28 23 
-3.230769 -5.500000 -19.692308 27 27 20 
-0.714286 -6.809524 -24.380953 26 26 24 
-0.700000 -7.150000 -25.600000 26 26 25 
-0.619048 -6.809524 -24.380953 25 25 25 
-0.600000 -7.150000 -25.600000 24 24 22 
-0.687500 -8.937500 -32.000000 23 23 21 
-0.909091 -13.000000 -46.545456 21 23 20 
-0.750000 -11.916667 -42.666668 22 24 22 
1.148936 -3.042553 -10.893617 80 77 34 
1.195652 -3.108696 -11.130435 80 78 36 
1.217391 -3.108696 -11.130435 80 78 36 
1.266667 -3.177778 -11.377778 79 78 34 
1.071429 -2.553571 -9.142858 82 81 36 
1.033333 -2.383333 -8.533334 78 77 33 
1.086207 -2.465517 -8.827586 83 80 39 
1.066667 -2.383333 -8.533334 79 76 35 
0.398936 -0.760638 -2.723404 78 76 37 
8.090909 -13.000000 -46.545456 77 74 31 
6.428571 -10.214286 -36.571430 76 73 30 
7.750000 -11.916667 -42.666668 76 73 30 
7.833333 -11.916667 -42.666668 75 72 30 
7.916667 -11.916667 -42.666668 74 71 29 
7.384615 -11.000000 -39.384617 75 72 30 
5.388889 -7.944445 -28.444445 76 73 33 
4.454545 -6.500000 -23.272728 76 73 33 
4.950000 -7.150000 -25.600000 76 72 34 
5.263158 -7.526316 -26.947369 76 72 34 
11.615385 -11.000000 -39.384617 74 71 30 
8.000000 -7.526316 -26.947369 75 72 31 
7.285714 -6.809524 -24.380953 76 73 32 
8.555555 -7.944445 -28.444445 76 73 31 
10.333333 -9.533334 -34.133335 75 72 29 
8.210526 -7.526316 -26.947369 75 72 30 
9.958333 -5.958333 -21.333334 68 68 36 
11.428572 -6.809524 -24.380953 70 69 37 
10.041667 -5.958333 -21.333334 70 69 38 
11.000000 -6.500000 -23.272728 69 68 37 
12.789474 -7.526316 -26.947369 70 69 38 
11.619047 -6.809524 -24.380953 70 69 38 
9.111111 -5.296296 -18.962963 69 68 37 
2.717391 -1.554348 -5.565217 69 68 37 
3.150000 -1.787500 -6.400000 69 65 36 
3.085366 -1.743902 -6.243902 68 64 37 
2.919540 -1.643678 -5.885057 67 63 36 
-2.075862 -0.993103 -3.531034 124 117 53 
-2.027027 -0.972973 -3.459460 126 119 56 
-2.006711 -0.966443 -3.436242 128 121 58 
-1.960526 -0.947368 -3.368421 130 122 59 
-1.928571 -0.935065 -3.324675 131 124 61 
-1.885350 -0.917197 -3.261147 131 124 59 
-2.695238 -1.371429 -4.876191 131 131 62 
-2.685714 -1.371429 -4.876191 133 131 64 
-2.676190 -1.371429 -4.876191 128 130 60 
-2.666667 -1.371429 -4.876191 139 142 74 
-3.170455 -1.636364 -5.818182 136 139 80 
-3.088889 -1.600000 -5.688889 44 48 15 
-3.183908 -1.655172 -5.885057 23 26 0 
-3.285714 -1.714286 -6.095238 26 29 3 
-3.313253 -1.734940 -6.168674 28 31 12 
-3.261905 -1.714286 -6.095238 25 27 15 
-3.174419 -1.674419 -5.953488 25 26 18 
-2.978022 -1.582418 -5.626374 24 25 18 
-2.908046 -1.655172 -5.885057 40 34 23 
-2.964706 -1.694118 -6.023530 34 27 15 
-3.012048 -1.734940 -6.168674 54 42 28 
-2.964286 -1.714286 -6.095238 128 116 92 
-3.024390 -1.756098 -6.243902 158 147 107 
-3.049383 -1.777778 -6.320988 137 129 69 
-3.194805 -1.870130 -6.649351 138 132 61 
-4.974359 -3.692308 -13.128205 141 135 63 
-4.288889 -3.200000 -11.377778 140 135 63 
-4.266667 -3.200000 -11.377778 141 137 64 
-4.658536 -3.512195 -12.487804 143 139 66 
-4.418605 -3.348837 -11.906977 144 140 67 
-4.295455 -3.272727 -11.636364 143 138 66 
-4.177778 -3.200000 -11.377778 142 137 66 
-4.065217 -3.130435 -11.130435 142 137 67 
-3.647059 -2.823529 -10.039216 142 137 68 
-3.557692 -2.769231 -9.846154 142 137 68 
-3.407408 -2.666667 -9.481482 142 137 69 
-4.900000 -7.200000 -25.600000 139 133 62 
-4.850000 -7.200000 -25.600000 139 135 70 
-4.571429 -6.857143 -24.380953 135 136 82 
-5.588235 -8.470589 -30.117647 26 27 0 
-4.700000 -7.200000 -25.600000 30 29 5 
-4.894737 -7.578948 -26.947369 32 29 16 
-4.380952 -6.857143 -24.380953 35 32 25 
-4.136364 -6.545455 -23.272728 36 33 26 
-5.625000 -9.000000 -32.000000 32 29 18 
-4.238095 -6.857143 -24.380953 35 33 20 
-4.578948 -7.578948 -26.947369 31 30 24 
-3.307692 -5.538462 -19.692308 30 29 24 
-3.230769 -5.538462 -19.692308 28 28 21 
-0.714286 -6.857143 -24.380953 26 26 24 
-0.700000 -7.200000 -25.600000 26 26 26 
-0.619048 -6.857143 -24.380953 25 25 24 
-0.600000 -7.200000 -25.600000 23 23 21 
-0.733333 -9.600000 -34.133335 22 22 20 
-1.111111 -16.000000 -56.888889 21 23 20 
-0.818182 -13.090909 -46.545456 22 24 22 
1.200000 -3.200000 -11.377778 81 78 35 
1.222222 -3.200000 -11.377778 80 77 36 
1.272727 -3.272727 -11.636364 78 76 35 
1.295455 -3.272727 -11.636364 79 76 35 
1.071429 -2.571429 -9.142858 81 79 38 
1.033333 -2.400000 -8.533334 79 78 34 
1.086207 -2.482759 -8.827586 85 82 41 
1.084746 -2.440678 -8.677966 81 78 37 
5.294117 -8.470589 -30.117647 76 73 29 
7.153846 -11.076923 -39.384617 75 72 28 
7.833333 -12.000000 -42.666668 74 71 27 
7.916667 -12.000000 -42.666668 73 70 27 
7.384615 -11.076923 -39.384617 74 71 28 
6.062500 -9.000000 -32.000000 76 73 32 
4.900000 -7.200000 -25.600000 77 74 33 
11.615385 -11.076923 -39.384617 75 71 32 
8.000000 -7.578948 -26.947369 76 71 32 
6.652174 -6.260870 -22.260870 77 72 33 
7.700000 -7.200000 -25.600000 77 72 33 
8.611111 -8.000000 -28.444445 76 73 32 
7.428571 -6.857143 -24.380953 76 73 31 
11.238095 -6.857143 -24.380953 75 72 39 
10.772727 -6.545455 -23.272728 73 70 37 
10.347826 -6.260870 -22.260870 72 69 36 
10.391304 -6.260870 -22.260870 70 69 35 
12.631579 -7.578948 -26.947369 70 69 36 
11.476191 -6.857143 -24.380953 71 69 37 
12.736842 -7.578948 -26.947369 71 69 38 
13.500000 -8.000000 -28.444445 71 69 38 
11.619047 -6.857143 -24.380953 70 69 38 
10.208333 -6.000000 -21.333334 69 68 37 
9.461538 -5.538462 -19.692308 67 66 35 
3.315789 -1.894737 -6.736842 70 66 37 
3.202532 -1.822785 -6.481013 69 65 38 
2.953488 -1.674419 -5.953488 68 64 37 
2.734043 -1.531915 -5.446808 64 60 33 
-2.165468 -1.043165 -3.683453 128 120 56 
-2.127660 -1.028369 -3.631206 128 120 56 
-2.047945 -0.993151 -3.506849 129 121 57 
-1.986667 -0.966667 -3.413333 129 121 57 
-1.953947 -0.953947 -3.368421 130 122 57 
-1.909677 -0.935484 -3.303226 131 124 57 
-2.695238 -1.380952 -4.876191 139 136 66 
-2.685714 -1.380952 -4.876191 136 134 64 
-2.676190 -1.380952 -4.876191 126 126 55 
-2.666667 -1.380952 -4.876191 139 141 74 
-3.100000 -1.611111 -5.688889 128 130 77 
-3.021739 -1.576087 -5.565217 23 26 9 
-3.183908 -1.666667 -5.885057 19 22 0 
-3.365854 -1.768293 -6.243902 27 29 4 
-3.353658 -1.768293 -6.243902 27 29 14 
-3.261905 -1.726190 -6.095238 28 29 21 
-2.978022 -1.593407 -5.626374 24 25 16 
-2.908046 -1.666667 -5.885057 40 33 22 
-3.000000 -1.726190 -6.095238 31 24 11 
-2.988095 -1.726190 -6.095238 36 27 14 
-3.048780 -1.768293 -6.243902 85 72 56 
-3.036585 -1.768293 -6.243902 142 129 100 
-3.139241 -1.835443 -6.481013 152 142 98 
-3.207792 -1.883117 -6.649351 138 130 72 
-3.324324 -1.959459 -6.918919 141 135 69 
-5.105263 -3.815789 -13.473684 143 136 65 
-4.488372 -3.372093 -11.906977 143 137 66 
-4.682927 -3.536585 -12.487804 144 137 67 
-4.775000 -3.625000 -12.800000 143 137 66 
-4.523809 -3.452381 -12.190476 139 135 64 
-4.500000 -3.452381 -12.190476 137 132 64 
-4.372093 -3.372093 -11.906977 142 138 71 
-4.250000 -3.295455 -11.636364 144 140 74 
-3.795918 -2.959184 -10.448979 144 139 74 
-3.538461 -2.788461 -9.846154 144 139 73 
-4.666667 -6.904762 -24.380953 145 141 70 
-4.619048 -6.904762 -24.380953 145 143 78 
-4.363636 -6.590909 -23.272728 126 127 74 
-5.000000 -7.631579 -26.947369 19 20 0 
-4.476191 -6.904762 -24.380953 28 26 3 
-4.428571 -6.904762 -24.380953 33 29 17 
-4.181818 -6.590909 -23.272728 38 35 27 
-3.791667 -6.041667 -21.333334 36 33 26 
-4.736842 -7.631579 -26.947369 29 27 16 
-4.045455 -6.590909 -23.272728 31 29 17 
-3.954545 -6.590909 -23.272728 30 29 25 
-3.185185 -5.370370 -18.962963 29 28 26 
-1.842105 -7.631579 -26.947369 94 93 44 
-2.000000 -8.529411 -30.117647 93 93 44 
-1.650000 -7.250000 -25.600000 92 93 43 
-0.666667 -6.904762 -24.380953 27 27 27 
-0.565217 -6.304348 -22.260870 25 25 25 
-0.631579 -7.631579 -26.947369 23 23 21 
-0.733333 -9.666667 -34.133335 22 23 21 
-1.111111 -16.111111 -56.888889 23 25 22 
-0.818182 -13.181818 -46.545456 24 26 23 
1.173913 -3.152174 -11.130435 80 77 36 
1.195652 -3.152174 -11.130435 80 77 35 
1.217391 -3.152174 -11.130435 79 76 35 
1.239130 -3.152174 -11.130435 79 76 35 
1.052632 -2.543860 -8.982456 80 77 36 
1.033333 -2.416667 -8.533334 79 77 36 
1.086207 -2.500000 -8.827586 82 79 38 
5.000000 -8.055555 -28.444445 75 72 27 
6.642857 -10.357142 -36.571430 76 74 28 
7.833333 -12.083333 -42.666668 76 74 27 
7.916667 -12.083333 -42.666668 74 72 26 
8.000000 -12.083333 -42.666668 75 72 28 
6.062500 -9.062500 -32.000000 78 75 32 
5.157895 -7.631579 -26.947369 78 75 33 
10.066667 -9.666667 -34.133335 77 72 34 
7.238095 -6.904762 -24.380953 77 72 34 
6.120000 -5.800000 -20.480000 77 72 34 
7.000000 -6.590909 -23.272728 78 73 35 
7.380952 -6.904762 -24.380953 77 74 33 
7.428571 -6.904762 -24.380953 75 72 31 
6.826087 -6.304348 -22.260870 75 71 32 
13.882353 -8.529411 -30.117647 74 71 37 
12.473684 -7.631579 -26.947369 72 69 36 
10.818182 -6.590909 -23.272728 72 69 35 
11.380953 -6.904762 -24.380953 72 69 35 
14.117647 -8.529411 -30.117647 71 68 35 
13.388889 -8.055555 -28.444445 71 68 35 
14.235294 -8.529411 -30.117647 72 69 36 
16.200001 -9.666667 -34.133335 71 68 36 
12.200000 -7.250000 -25.600000 68 67 36 
10.652174 -6.304348 -22.260870 67 66 35 
10.250000 -6.041667 -21.333334 66 65 34 
3.123457 -1.790123 -6.320988 70 66 39 
2.953488 -1.686046 -5.953488 69 65 38 
2.931035 -1.666667 -5.885057 69 65 38 
2.844445 -1.611111 -5.688889 68 64 37 
2.824176 -1.593407 -5.626374 67 63 36 
2.687500 -1.510417 -5.333333 65 61 34 
2.826087 -1.576087 -5.565217 65 61 34 
2.718750 -1.510417 -5.333333 68 64 37 
-2.197080 -1.065693 -3.737226 127 119 54 
-2.142857 -1.042857 -3.657143 128 120 55 
-2.076389 -1.013889 -3.555556 130 122 56 
-2.027211 -0.993197 -3.482993 131 124 57 
-1.993289 -0.979866 -3.436242 133 126 59 
-1.934641 -0.954248 -3.346405 135 128 60 
-2.695238 -1.390476 -4.876191 132 129 57 
-2.685714 -1.390476 -4.876191 135 132 62 
-2.676190 -1.390476 -4.876191 130 130 62 
-2.666667 -1.390476 -4.876191 142 143 81 
-3.000000 -1.569893 -5.505376 114 116 71 
-3.021739 -1.586957 -5.565217 9 11 3 
-3.220930 -1.697674 -5.953488 20 23 4 
-3.365854 -1.780488 -6.243902 28 31 10 
-3.313253 -1.759036 -6.168674 26 29 15 
-3.261905 -1.738095 -6.095238 26 29 20 
-2.978022 -1.604396 -5.626374 23 25 14 
-2.908046 -1.678161 -5.885057 42 36 26 
-3.000000 -1.738095 -6.095238 26 19 11 
-3.024096 -1.759036 -6.168674 42 35 22 
-3.086420 -1.802469 -6.320988 123 114 81 
-3.112500 -1.825000 -6.400000 145 137 94 
-3.263158 -1.921053 -6.736842 145 137 87 
-3.337838 -1.972973 -6.918919 138 131 75 
-3.416667 -2.027778 -7.111111 142 136 74 
-4.707317 -3.560976 -12.487804 143 138 67 
-5.052631 -3.842105 -13.473684 143 138 67 
-4.897436 -3.743590 -13.128205 143 139 68 
-4.523809 -3.476191 -12.190476 143 139 69 
-4.476191 -3.476191 -12.190476 143 140 72 
-4.348837 -3.395349 -11.906977 142 140 72 
-4.454545 -6.636364 -23.272728 140 138 68 
-4.409091 -6.636364 -23.272728 141 140 77 
-4.173913 -6.347826 -22.260870 115 116 65 
-4.750000 -7.300000 -25.600000 14 15 1 
-4.272727 -6.636364 -23.272728 32 30 7 
-4.227273 -6.636364 -23.272728 35 31 20 
-3.833333 -6.083333 -21.333334 35 32 24 
-3.640000 -5.840000 -20.480000 34 31 24 
-4.285714 -6.952381 -24.380953 32 30 19 
-3.869565 -6.347826 -22.260870 31 29 17 
-3.625000 -6.083333 -21.333334 29 28 23 
-3.185185 -5.407407 -18.962963 27 27 24 
-3.400000 -5.840000 -20.480000 26 26 23 
-2.312500 -9.125000 -32.000000 97 98 48 
-2.571429 -10.428572 -36.571430 95 96 46 
-1.944444 -8.111111 -28.444445 95 96 46 
-2.000000 -8.588235 -30.117647 94 97 45 
-0.608696 -6.347826 -22.260870 28 28 28 
-0.500000 -5.615385 -19.692308 25 25 25 
-0.909091 -13.272727 -46.545456 23 25 22 
1.104167 -3.041667 -10.666667 82 78 37 
1.200000 -3.244444 -11.377778 82 79 38 
1.195652 -3.173913 -11.130435 81 78 37 
1.217391 -3.173913 -11.130435 81 78 37 
1.239130 -3.173913 -11.130435 81 78 37 
5.000000 -8.111111 -28.444445 77 74 32 
4.333333 -6.952381 -24.380953 78 74 32 
5.411765 -8.588235 -30.117647 76 72 31 
5.812500 -9.125000 -32.000000 78 73 32 
7.230769 -11.230769 -39.384617 80 75 33 
7.916667 -12.166667 -42.666668 78 72 30 
7.384615 -11.230769 -39.384617 78 72 30 
6.062500 -9.125000 -32.000000 78 74 32 
5.157895 -7.684210 -26.947369 79 74 33 
8.388889 -8.111111 -28.444445 77 72 33 
6.909091 -6.636364 -23.272728 78 73 34 
5.666667 -5.407407 -18.962963 78 73 34 
6.695652 -6.347826 -22.260870 78 73 34 
6.200000 -5.840000 -20.480000 79 72 33 
7.428571 -6.952381 -24.380953 78 72 32 
6.541667 -6.083333 -21.333334 77 73 33 
16.857143 -10.428572 -36.571430 71 70 33 
13.941176 -8.588235 -30.117647 70 68 33 
11.900000 -7.300000 -25.600000 70 68 33 
11.950000 -7.300000 -25.600000 71 69 33 
16.000000 -9.733334 -34.133335 71 68 33 
14.176471 -8.588235 -30.117647 71 68 34 
15.125000 -9.125000 -32.000000 72 69 36 
16.200001 -9.733334 -34.133335 71 68 35 
12.842105 -7.684210 -26.947369 70 67 34 
11.136364 -6.636364 -23.272728 71 67 35 
11.181818 -6.636364 -23.272728 71 68 37 
3.000000 -1.738095 -6.095238 70 66 37 
3.048193 -1.759036 -6.168674 70 66 39 
2.919540 -1.678161 -5.885057 69 65 38 
2.897727 -1.659091 -5.818182 69 65 38 
2.844445 -1.622222 -5.688889 70 66 39 
2.824176 -1.604396 -5.626374 68 64 37 
2.744681 -1.553192 -5.446808 66 62 35 
2.784946 -1.569893 -5.505376 64 60 33 
2.888889 -1.622222 -5.688889 65 61 34 
2.806452 -1.569893 -5.505376 67 63 36 
-2.213235 -1.080882 -3.764706 127 119 54 
-2.158273 -1.057554 -3.683453 129 121 55 
-2.105634 -1.035211 -3.605634 130 123 56 
-2.083916 -1.027972 -3.580420 131 124 55 
-2.048276 -1.013793 -3.531034 132 125 56 
-1.986577 -0.986577 -3.436242 133 127 58 
-2.669811 -1.386792 -4.830189 133 132 55 
-2.660377 -1.386792 -4.830189 133 134 60 
-2.676190 -1.400000 -4.876191 133 134 67 
-2.692308 -1.413462 -4.923077 138 140 82 
-3.000000 -1.580645 -5.505376 97 100 62 
-3.054945 -1.615385 -5.626374 6 8 0 
-3.220930 -1.709302 -5.953488 22 24 7 
-3.325301 -1.771084 -6.168674 26 29 12 
-3.273809 -1.750000 -6.095238 23 28 14 
-3.223529 -1.729412 -6.023530 27 30 21 
-3.174419 -1.709302 -5.953488 27 30 20 
-2.945652 -1.597826 -5.565217 24 26 15 
-2.908046 -1.689655 -5.885057 42 37 27 
-3.000000 -1.750000 -6.095238 21 16 10 
-2.988095 -1.750000 -6.095238 52 46 32 
-3.048780 -1.792683 -6.243902 139 131 93 
-3.074074 -1.814815 -6.320988 150 142 95 
-3.220779 -1.909091 -6.649351 143 136 83 
-3.337838 -1.986486 -6.918919 137 131 72 
-3.324324 -1.986486 -6.918919 140 135 70 
-3.402778 -2.041667 -7.111111 138 134 64 
-3.297297 -1.986486 -6.918919 138 134 61 
-3.155844 -1.909091 -6.649351 140 136 62 
-4.682927 -3.585366 -12.487804 145 141 70 
-4.658536 -3.585366 -12.487804 146 142 71 
-inf -inf -inf 143 139 65 
-4.260870 -6.391304 -22.260870 144 141 74 
-4.041667 -6.125000 -21.333334 143 142 79 
-4.000000 -6.125000 -21.333334 104 105 55 
-4.523809 -7.000000 -24.380953 14 14 1 
-4.086957 -6.391304 -22.260870 36 35 10 
-4.043478 -6.391304 -22.260870 36 33 20 
-3.833333 -6.125000 -21.333334 33 30 22 
-3.640000 -5.880000 -20.480000 35 32 24 
-4.285714 -7.000000 -24.380953 33 31 19 
-4.045455 -6.681818 -23.272728 32 30 18 
-4.000000 -6.681818 -23.272728 32 29 22 
-3.782609 -6.391304 -22.260870 31 28 24 
-3.185185 -5.444445 -18.962963 30 28 26 
-3.000000 -12.250000 -42.666668 96 98 47 
-2.187500 -9.187500 -32.000000 96 98 47 
-1.111111 -16.333334 -56.888889 22 24 22 
1.127660 -3.127660 -10.893617 84 78 37 
1.200000 -3.266667 -11.377778 85 79 37 
1.195652 -3.195652 -11.130435 84 78 37 
1.217391 -3.195652 -11.130435 83 76 37 
1.266667 -3.266667 -11.377778 82 76 36 
6.357143 -10.500000 -36.571430 78 73 34 
5.294117 -8.647058 -30.117647 80 75 37 
4.550000 -7.350000 -25.600000 79 74 36 
5.111111 -8.166667 -28.444445 77 72 34 
5.470588 -8.647058 -30.117647 78 72 34 
6.714286 -10.500000 -36.571430 81 73 36 
7.307693 -11.307693 -39.384617 80 73 35 
6.857143 -10.500000 -36.571430 79 73 34 
6.062500 -9.187500 -32.000000 79 73 35 
4.454545 -6.681818 -23.272728 79 74 35 
9.933333 -9.800000 -34.133335 78 73 33 
11.538462 -11.307693 -39.384617 77 72 32 
8.388889 -8.166667 -28.444445 77 72 32 
6.608696 -6.391304 -22.260870 78 73 33 
5.100000 -4.900000 -17.066668 78 73 33 
6.416667 -6.125000 -21.333334 77 72 32 
5.961538 -5.653846 -19.692308 77 71 33 
7.090909 -6.681818 -23.272728 78 72 34 
6.280000 -5.880000 -20.480000 78 73 35 
18.076923 -11.307693 -39.384617 70 72 36 
19.666666 -12.250000 -42.666668 69 71 33 
14.812500 -9.187500 -32.000000 69 69 32 
14.000000 -8.647058 -30.117647 69 69 32 
13.277778 -8.166667 -28.444445 70 70 34 
18.461538 -11.307693 -39.384617 70 70 34 
16.066668 -9.800000 -34.133335 70 69 34 
15.125000 -9.187500 -32.000000 71 68 35 
14.294118 -8.647058 -30.117647 72 69 36 
12.200000 -7.350000 -25.600000 73 70 37 
10.652174 -6.391304 -22.260870 72 69 36 
10.695652 -6.391304 -22.260870 73 68 38 
3.000000 -1.750000 -6.095238 71 67 38 
3.011905 -1.750000 -6.095238 70 66 39 
2.919540 -1.689655 -5.885057 69 65 38 
2.897727 -1.670455 -5.818182 68 64 37 
2.813187 -1.615385 -5.626374 69 65 38 
2.824176 -1.615385 -5.626374 68 64 37 
2.715790 -1.547368 -5.389474 66 62 35 
2.697917 -1.531250 -5.333333 64 60 33 
2.826087 -1.597826 -5.565217 64 60 33 
2.747368 -1.547368 -5.389474 66 62 35 
1.394872 -0.753846 -2.625641 44 41 24 
1.407217 -0.757732 -2.639175 36 33 20 
1.419689 -0.761658 -2.652850 36 33 26 
1.403061 -0.750000 -2.612245 34 31 26 
1.376238 -0.727723 -2.534653 30 29 27 
-2.263158 -1.112782 -3.849624 127 120 52 
-2.205882 -1.088235 -3.764706 128 121 53 
-2.151079 -1.064748 -3.683453 128 122 52 
-2.143885 -1.064748 -3.683453 129 123 52 
-2.076923 -1.034965 -3.580420 131 125 54 
-2.027397 -1.013699 -3.506849 131 127 55 
-2.629630 -1.370370 -4.740741 133 131 48 
-2.669811 -1.396226 -4.830189 131 131 51 
-2.660377 -1.396226 -4.830189 132 133 59 
-2.701923 -1.423077 -4.923077 137 138 71 
-2.718446 -1.436893 -4.970874 132 134 80 
-3.032609 -1.608696 -5.565217 81 84 51 
-3.123595 -1.662921 -5.752809 3 7 1 
-3.258824 -1.741176 -6.023530 20 23 8 
-3.325301 -1.783133 -6.168674 24 28 13 
-3.273809 -1.761905 -6.095238 24 29 16 
-3.261905 -1.761905 -6.095238 28 31 21 
-3.174419 -1.720930 -5.953488 27 30 21 
-3.090909 -1.681818 -5.818182 26 29 21 
-2.945652 -1.608696 -5.565217 27 28 22 
-2.953488 -1.720930 -5.953488 40 37 27 
-2.976470 -1.741176 -6.023530 41 37 26 
-3.036144 -1.783133 -6.168674 18 13 8 
-3.024096 -1.783133 -6.168674 66 60 42 
-3.048780 -1.804878 -6.243902 153 146 102 
-3.074074 -1.827160 -6.320988 149 142 89 
-3.220779 -1.922078 -6.649351 141 134 75 
-3.207792 -1.922078 -6.649351 137 132 68 
-3.194805 -1.922078 -6.649351 139 135 67 
-3.310811 -2.000000 -6.918919 138 134 62 
-3.210526 -1.947368 -6.736842 140 136 63 
-inf -inf -inf 145 141 67 
-3.920000 -5.920000 -20.480000 151 144 80 
-3.880000 -5.920000 -20.480000 148 144 82 
-3.840000 -5.920000 -20.480000 87 88 38 
-4.318182 -6.727273 -23.272728 18 19 1 
-3.916667 -6.166667 -21.333334 34 34 10 
-3.875000 -6.166667 -21.333334 37 35 22 
-3.680000 -5.920000 -20.480000 36 33 24 
-3.500000 -5.692307 -19.692308 36 33 24 
-4.090909 -6.727273 -23.272728 32 30 18 
-4.045455 -6.727273 -23.272728 32 30 18 
-4.190476 -7.047619 -24.380953 32 29 22 
-3.954545 -6.727273 -23.272728 31 28 24 
-3.071429 -5.285714 -18.285715 30 28 25 
-4.000000 -16.444445 -56.888889 95 97 45 
-2.692308 -11.384615 -39.384617 96 97 45 
-2.833333 -12.333333 -42.666668 94 95 42 
-0.245614 -2.596491 -8.982456 25 25 23 
1.106383 -3.148936 -10.893617 82 77 35 
1.104167 -3.083333 -10.666667 82 77 35 
1.200000 -3.288889 -11.377778 84 77 35 
1.195652 -3.217391 -11.130435 83 76 35 
1.244444 -3.288889 -11.377778 82 75 34 
1.295455 -3.363636 -11.636364 82 75 34 
6.846154 -11.384615 -39.384617 76 71 32 
5.294117 -8.705882 -30.117647 78 73 34 
4.333333 -7.047619 -24.380953 78 73 35 
4.600000 -7.400000 -25.600000 77 72 34 
5.166667 -8.222222 -28.444445 77 72 34 
5.875000 -9.250000 -32.000000 79 72 36 
6.785714 -10.571428 -36.571430 80 74 37 
6.400000 -9.866667 -34.133335 80 75 37 
5.705883 -8.705882 -30.117647 79 74 36 
4.454545 -6.727273 -23.272728 79 74 36 
0.858209 -1.104478 -3.820895 73 71 32 
0.846715 -1.080292 -3.737226 72 70 31 
9.312500 -9.250000 -32.000000 78 73 35 
8.823529 -8.705882 -30.117647 77 72 34 
8.388889 -8.222222 -28.444445 77 72 33 
6.333333 -6.166667 -21.333334 78 73 34 
4.935484 -4.774194 -16.516129 77 72 34 
6.416667 -6.166667 -21.333334 76 71 32 
5.961538 -5.692307 -19.692308 76 70 34 
6.782609 -6.434783 -22.260870 77 71 35 
6.038462 -5.692307 -19.692308 77 72 35 
26.222221 -16.444445 -56.888889 68 70 33 
18.230770 -11.384615 -39.384617 69 70 34 
17.000000 -10.571428 -36.571430 69 70 33 
18.384615 -11.384615 -39.384617 70 71 34 
24.000000 -14.800000 -51.200001 70 70 34 
24.100000 -14.800000 -51.200001 69 69 33 
18.615385 -11.384615 -39.384617 71 68 33 
17.357143 -10.571428 -36.571430 73 70 35 
12.842105 -7.789474 -26.947369 74 71 38 
2.964706 -1.741176 -6.023530 74 69 40 
3.011905 -1.761905 -6.095238 71 67 40 
2.919540 -1.701149 -5.885057 69 65 38 
2.897727 -1.681818 -5.818182 68 64 37 
2.782609 -1.608696 -5.565217 67 63 36 
2.793478 -1.608696 -5.565217 67 63 36 
2.659794 -1.525773 -5.278350 66 62 35 
2.590000 -1.480000 -5.120000 65 61 34 
2.680412 -1.525773 -5.278350 64 60 33 
2.663265 -1.510204 -5.224490 66 62 35 
1.389744 -0.758974 -2.625641 60 56 34 
1.416667 -0.770833 -2.666667 47 42 24 
1.421875 -0.770833 -2.666667 34 29 16 
1.434555 -0.774869 -2.680628 36 32 23 
1.432292 -0.770833 -2.666667 33 29 25 
1.430052 -0.766839 -2.652850 32 29 26 
1.420513 -0.758974 -2.625641 32 29 27 
1.396985 -0.743719 -2.572864 31 30 28 
-2.280303 -1.128788 -3.878788 124 119 51 
-2.205882 -1.095588 -3.764706 126 121 53 
-2.151079 -1.071942 -3.683453 129 125 55 
-2.175183 -1.087591 -3.737226 131 127 56 
-2.106383 -1.056738 -3.631206 133 129 56 
-2.069930 -1.041958 -3.580420 131 128 53 
-2.679245 -1.405660 -4.830189 132 131 50 
-2.695238 -1.419048 -4.876191 131 131 53 
-2.685714 -1.419048 -4.876191 136 137 62 
-2.782178 -1.475248 -5.069307 146 148 75 
-3.100000 -1.655556 -5.688889 56 59 23 
-3.195402 -1.712644 -5.885057 8 11 3 
-3.419753 -1.839506 -6.320988 27 29 18 
-3.407408 -1.839506 -6.320988 28 32 19 
-3.353658 -1.817073 -6.243902 27 31 19 
-3.341463 -1.817073 -6.243902 27 30 20 
-3.211765 -1.752941 -6.023530 26 28 20 
-3.126437 -1.712644 -5.885057 25 27 21 
-3.011111 -1.655556 -5.688889 26 26 21 
-2.941860 -1.732558 -5.953488 40 37 26 
-3.000000 -1.773810 -6.095238 16 11 6 
-2.988095 -1.773810 -6.095238 80 75 51 
-2.976191 -1.773810 -6.095238 158 154 103 
-3.036585 -1.817073 -6.243902 144 138 77 
-3.179487 -1.910256 -6.564103 139 134 69 
-3.087500 -1.862500 -6.400000 139 135 67 
-3.153846 -1.910256 -6.564103 141 137 65 
-3.181818 -1.935065 -6.649351 139 135 63 
-3.088608 -1.886076 -6.481013 143 139 65 
-inf -inf -inf 147 143 68 
-3.920000 -5.960000 -20.480000 151 145 85 
-3.880000 -5.960000 -20.480000 138 136 78 
-3.840000 -5.960000 -20.480000 74 75 29 
-4.130435 -6.478261 -22.260870 17 18 2 
-3.916667 -6.208333 -21.333334 36 35 11 
-3.720000 -5.960000 -20.480000 39 37 24 
-3.538461 -5.730769 -19.692308 37 34 25 
-3.370370 -5.518518 -18.962963 36 33 24 
-4.090909 -6.772727 -23.272728 32 29 17 
-3.869565 -6.478261 -22.260870 32 30 18 
-4.190476 -7.095238 -24.380953 32 30 22 
-3.954545 -6.772727 -23.272728 32 28 24 
-2.866667 -4.966667 -17.066668 31 28 25 
-3.600000 -14.900000 -51.200001 97 96 43 
-2.916667 -12.416667 -42.666668 97 96 43 
-0.245614 -2.614035 -8.982456 25 25 23 
1.000000 -2.921569 -10.039216 83 79 36 
1.019608 -2.921569 -10.039216 82 78 34 
1.039216 -2.921569 -10.039216 81 76 33 
1.102041 -3.040816 -10.448979 81 76 32 
1.100000 -2.980000 -10.240000 81 76 32 
1.098039 -2.921569 -10.039216 80 75 31 
6.846154 -11.461538 -39.384617 77 72 32 
5.000000 -8.277778 -28.444445 79 74 34 
4.333333 -7.095238 -24.380953 79 74 35 
4.380952 -7.095238 -24.380953 79 74 36 
4.894737 -7.842105 -26.947369 79 74 36 
5.529412 -8.764706 -30.117647 78 73 37 
6.333333 -9.933333 -34.133335 79 74 38 
5.647059 -8.764706 -30.117647 79 75 38 
5.105263 -7.842105 -26.947369 79 74 37 
4.260870 -6.478261 -22.260870 78 73 36 
0.852713 -1.155039 -3.968992 75 73 31 
0.853846 -1.146154 -3.938462 75 73 31 
0.854962 -1.137405 -3.908397 75 73 31 
0.862595 -1.137405 -3.908397 75 73 32 
0.863636 -1.128788 -3.878788 75 73 33 
0.851852 -1.103704 -3.792593 75 73 34 
0.846715 -1.087591 -3.737226 74 72 33 
0.860294 -1.095588 -3.764706 73 71 32 
9.933333 -9.933333 -34.133335 76 72 35 
7.894737 -7.842105 -26.947369 76 72 35 
7.947369 -7.842105 -26.947369 77 73 35 
6.608696 -6.478261 -22.260870 78 73 35 
5.464286 -5.321429 -18.285715 78 73 35 
7.000000 -6.772727 -23.272728 77 72 34 
6.458333 -6.208333 -21.333334 76 71 35 
7.090909 -6.772727 -23.272728 77 72 36 
6.280000 -5.960000 -20.480000 77 72 36 
19.750000 -12.416667 -42.666668 70 71 37 
19.833334 -12.416667 -42.666668 69 70 36 
23.900000 -14.900000 -51.200001 69 69 35 
20.166666 -12.416667 -42.666668 68 68 32 
20.250000 -12.416667 -42.666668 71 71 36 
15.250000 -9.312500 -32.000000 68 68 34 
3.000000 -1.773810 -6.095238 73 69 38 
3.085366 -1.817073 -6.243902 72 69 37 
2.988235 -1.752941 -6.023530 71 68 36 
2.931035 -1.712644 -5.885057 70 66 36 
2.844445 -1.655556 -5.688889 69 65 36 
2.887640 -1.674157 -5.752809 68 64 35 
2.744681 -1.585106 -5.446808 67 63 35 
2.616162 -1.505051 -5.171717 66 62 34 
2.653061 -1.520408 -5.224490 64 60 33 
2.718750 -1.552083 -5.333333 66 62 35 
1.389744 -0.764103 -2.625641 62 57 34 
1.416667 -0.776042 -2.666667 50 45 26 
1.421875 -0.776042 -2.666667 34 28 13 
1.434555 -0.780105 -2.680628 36 32 21 
1.447368 -0.784211 -2.694737 32 27 22 
1.445026 -0.780105 -2.680628 32 28 24 
1.427835 -0.768041 -2.639175 32 28 25 
1.404040 -0.752525 -2.585859 31 29 27 
-2.280303 -1.136364 -3.878788 126 122 52 
-2.205882 -1.102941 -3.764706 128 123 53 
-2.135714 -1.071429 -3.657143 128 124 52 
-2.143885 -1.079137 -3.683453 128 124 51 
-2.076923 -1.048951 -3.580420 128 124 51 
-2.027397 -1.027397 -3.506849 133 130 53 
-2.704762 -1.428571 -4.876191 134 131 58 
-2.721154 -1.442308 -4.923077 132 130 57 
-2.711539 -1.442308 -4.923077 140 140 66 
-3.076923 -1.648352 -5.626374 85 87 25 
-3.134831 -1.685393 -5.752809 41 42 4 
-3.309524 -1.785714 -6.095238 19 19 4 
-3.551282 -1.923077 -6.564103 24 24 15 
-3.538461 -1.923077 -6.564103 26 28 18 
-3.525641 -1.923077 -6.564103 27 29 19 
-3.468354 -1.898734 -6.481013 26 27 20 
-3.289157 -1.807229 -6.168674 26 26 20 
-3.162791 -1.744186 -5.953488 26 25 20 
-3.044944 -1.685393 -5.752809 27 25 21 
-2.953488 -1.744186 -5.953488 36 35 24 
-3.011905 -1.785714 -6.095238 36 34 22 
-3.036144 -1.807229 -6.168674 19 15 4 
-2.988095 -1.785714 -6.095238 95 92 58 
-2.976191 -1.785714 -6.095238 159 156 98 
-3.036585 -1.829268 -6.243902 138 134 65 
-3.179487 -1.923077 -6.564103 139 134 63 
-3.049383 -1.851852 -6.320988 140 136 63 
-3.153846 -1.923077 -6.564103 141 137 64 
-3.223684 -1.973684 -6.736842 140 136 63 
-3.128205 -1.923077 -6.564103 142 138 65 
-inf -inf -inf 149 144 70 
-inf -inf -inf 148 143 69 
-inf -inf -inf 147 144 67 
-3.920000 -6.000000 -20.480000 157 153 81 
-3.880000 -6.000000 -20.480000 139 138 72 
-3.840000 -6.000000 -20.480000 61 62 16 
-4.130435 -6.521739 -22.260870 19 20 2 
-3.916667 -6.250000 -21.333334 35 35 13 
-3.720000 -6.000000 -20.480000 38 36 25 
-3.407408 -5.555555 -18.962963 35 32 23 
-3.370370 -5.555555 -18.962963 35 32 23 
-3.913043 -6.521739 -22.260870 32 30 17 
-3.954545 -6.818182 -23.272728 33 30 24 
-2.714286 -10.714286 -36.571430 97 94 43 
-3.272727 -13.636364 -46.545456 98 95 42 
-3.181818 -13.636364 -46.545456 100 97 44 
-3.777778 -16.666666 -56.888889 100 96 43 
-0.245614 -2.631579 -8.982456 26 27 22 
-0.210526 -2.631579 -8.982456 25 25 25 
0.980769 -2.884615 -9.846154 83 80 35 
1.000000 -2.884615 -9.846154 82 78 33 
1.019231 -2.884615 -9.846154 81 77 32 
1.018868 -2.830189 -9.660378 80 76 31 
1.000000 -2.727273 -9.309091 80 76 31 
0.949153 -2.542373 -8.677966 80 76 30 
4.550000 -7.500000 -25.600000 79 74 34 
4.380952 -7.142857 -24.380953 79 74 35 
4.894737 -7.894737 -26.947369 79 74 35 
5.529412 -8.823529 -30.117647 79 75 37 
6.333333 -10.000000 -34.133335 78 74 37 
5.333333 -8.333333 -28.444445 78 74 37 
5.105263 -7.894737 -26.947369 77 73 36 
0.842105 -1.127820 -3.849624 76 73 30 
0.843284 -1.119403 -3.820895 76 73 31 
0.850746 -1.119403 -3.820895 76 74 32 
0.839416 -1.094890 -3.737226 77 74 34 
0.846715 -1.094890 -3.737226 76 73 33 
0.860294 -1.102941 -3.764706 74 71 32 
0.861314 -1.094890 -3.737226 74 70 33 
7.500000 -7.500000 -25.600000 76 72 35 
8.388889 -8.333333 -28.444445 77 73 35 
7.238095 -7.142857 -24.380953 77 73 35 
6.375000 -6.250000 -21.333334 77 73 35 
7.700000 -7.500000 -25.600000 77 73 35 
7.380952 -7.142857 -24.380953 77 73 36 
7.428571 -7.142857 -24.380953 77 73 36 
6.826087 -6.521739 -22.260870 77 73 36 
6.076923 -5.769231 -19.692308 78 74 37 
22.000000 -13.636364 -46.545456 68 68 32 
22.090910 -13.636364 -46.545456 72 72 36 
17.428572 -10.714286 -36.571430 70 70 34 
14.411765 -8.823529 -30.117647 70 70 34 
3.111111 -1.851852 -6.320988 70 67 34 
3.202532 -1.898734 -6.481013 71 68 34 
3.060241 -1.807229 -6.168674 71 68 34 
3.035714 -1.785714 -6.095238 71 68 35 
2.942529 -1.724138 -5.885057 70 67 35 
2.988372 -1.744186 -5.953488 69 66 35 
2.866667 -1.666667 -5.688889 67 64 33 
2.755319 -1.595745 -5.446808 66 62 33 
2.708333 -1.562500 -5.333333 65 61 32 
1.382653 -0.765306 -2.612245 63 56 34 
1.402062 -0.773196 -2.639175 58 51 33 
1.414508 -0.777202 -2.652850 37 28 15 
1.427083 -0.781250 -2.666667 35 28 18 
1.447368 -0.789474 -2.694737 36 28 24 
1.445026 -0.785340 -2.680628 33 27 24 
1.427835 -0.773196 -2.639175 31 25 24 
1.411168 -0.761421 -2.598985 31 28 27 
-2.315385 -1.161538 -3.938462 126 121 54 
-2.222222 -1.118518 -3.792593 127 123 56 
-2.159420 -1.094203 -3.710145 132 125 60 
-2.121428 -1.078571 -3.657143 134 127 63 
-2.000000 -1.020270 -3.459460 134 129 63 
-2.679245 -1.424528 -4.830189 135 132 61 
-2.669811 -1.424528 -4.830189 132 128 58 
-2.685714 -1.438095 -4.876191 145 143 71 
-3.043478 -1.641304 -5.565217 55 55 11 
-3.170455 -1.715909 -5.818182 31 29 2 
-3.390244 -1.841463 -6.243902 27 24 8 
-3.644737 -1.986842 -6.736842 26 23 17 
-3.631579 -1.986842 -6.736842 28 27 20 
-3.618421 -1.986842 -6.736842 29 28 21 
-3.558442 -1.961039 -6.649351 29 27 22 
-3.412500 -1.887500 -6.400000 29 26 22 
-3.277108 -1.819277 -6.168674 30 26 22 
-3.114943 -1.735632 -5.885057 29 25 22 
-2.976744 -1.755814 -5.953488 38 38 28 
-2.931035 -1.735632 -5.885057 37 37 27 
-3.060241 -1.819277 -6.168674 35 35 24 
-3.085366 -1.841463 -6.243902 33 30 17 
-3.073171 -1.841463 -6.243902 30 26 5 
-3.060976 -1.841463 -6.243902 112 108 65 
-3.048780 -1.841463 -6.243902 158 154 92 
-3.112500 -1.887500 -6.400000 137 133 60 
-3.220779 -1.961039 -6.649351 138 134 61 
-3.049383 -1.864197 -6.320988 139 135 61 
-3.236842 -1.986842 -6.736842 138 134 61 
-3.356164 -2.068493 -7.013699 138 134 61 
-3.342466 -2.068493 -7.013699 139 135 62 
-inf -inf -inf 149 144 71 
-inf -inf -inf 148 144 70 
-inf -inf -inf 148 144 70 
-inf -inf -inf 149 146 71 
-3.920000 -6.040000 -20.480000 156 152 84 
-3.880000 -6.040000 -20.480000 129 127 66 
-4.000000 -6.291667 -21.333334 55 56 11 
-4.130435 -6.565217 -22.260870 23 23 3 
-3.760000 -6.040000 -20.480000 33 32 13 
-3.720000 -6.040000 -20.480000 35 32 24 
-3.407408 -5.592593 -18.962963 32 29 22 
-3.250000 -5.392857 -18.285715 34 31 24 
-3.750000 -6.291667 -21.333334 33 31 17 
-3.560000 -6.040000 -20.480000 34 32 17 
-3.480000 -6.040000 -20.480000 32 29 22 
-2.533333 -10.066667 -34.133335 96 93 42 
-2.642857 -10.785714 -36.571430 97 94 42 
-3.000000 -12.583333 -42.666668 98 95 43 
-2.916667 -12.583333 -42.666668 102 98 46 
-0.237288 -2.559322 -8.677966 26 27 21 
-0.224138 -2.603448 -8.827586 25 26 22 
-0.206897 -2.603448 -8.827586 24 24 25 
-0.200000 -2.745455 -9.309091 23 23 25 
-0.181818 -2.745455 -9.309091 23 23 25 
-0.142857 -2.696429 -9.142858 22 22 20 
1.000000 -2.960784 -10.039216 82 79 34 
1.000000 -2.903846 -9.846154 81 78 33 
1.000000 -2.849057 -9.660378 81 78 32 
1.000000 -2.796296 -9.481482 81 78 32 
0.964912 -2.649123 -8.982456 81 78 31 
0.933333 -2.516667 -8.533334 80 77 29 
5.937500 -9.437500 -32.000000 76 73 34 
5.333333 -8.388889 -28.444445 75 72 34 
0.855072 -1.094203 -3.710145 73 69 31 
0.862319 -1.094203 -3.710145 73 69 31 
6.909091 -6.863636 -23.272728 76 72 34 
6.375000 -6.291667 -21.333334 76 72 34 
8.105263 -7.947369 -26.947369 77 73 35 
7.380952 -7.190476 -24.380953 76 73 35 
7.800000 -7.550000 -25.600000 76 73 35 
7.136364 -6.863636 -23.272728 75 73 35 
6.320000 -6.040000 -20.480000 76 73 35 
6.625000 -6.291667 -21.333334 76 73 35 
4.684210 -3.973684 -13.473684 76 74 32 
4.475000 -3.775000 -12.800000 76 73 32 
20.166666 -12.583333 -42.666668 68 68 32 
17.357143 -10.785714 -36.571430 70 70 34 
14.352942 -8.882353 -30.117647 68 68 32 
14.411765 -8.882353 -30.117647 69 69 33 
3.315789 -1.986842 -6.736842 68 65 32 
3.373333 -2.013333 -6.826667 70 67 32 
3.256410 -1.935897 -6.564103 71 68 34 
3.148148 -1.864197 -6.320988 71 68 35 
3.047619 -1.797619 -6.095238 71 68 36 
3.023530 -1.776471 -6.023530 70 67 36 
2.931818 -1.715909 -5.818182 68 64 34 
2.815217 -1.641304 -5.565217 66 62 33 
2.857143 -1.659341 -5.626374 64 60 31 
1.382653 -0.770408 -2.612245 63 55 31 
1.402062 -0.778351 -2.639175 63 55 37 
1.414508 -0.782383 -2.652850 38 30 17 
1.419689 -0.782383 -2.652850 34 26 17 
1.455027 -0.798942 -2.708995 39 30 26 
1.452632 -0.794737 -2.694737 36 27 26 
1.427835 -0.778351 -2.639175 33 24 26 
1.418367 -0.770408 -2.612245 33 27 28 
1.548223 -0.766497 -2.598985 37 27 28 
-2.255639 -1.142857 -3.849624 130 123 60 
-2.248120 -1.142857 -3.849624 132 124 61 
-2.223881 -1.134328 -3.820895 133 125 62 
-2.233083 -1.142857 -3.849624 134 127 63 
-2.688679 -1.433962 -4.830189 137 131 62 
-2.679245 -1.433962 -4.830189 136 131 63 
-2.669811 -1.433962 -4.830189 133 128 60 
-2.685714 -1.447619 -4.876191 150 148 78 
-3.076923 -1.670330 -5.626374 31 30 9 
-3.206897 -1.747126 -5.885057 26 22 4 
-3.475000 -1.900000 -6.400000 32 26 12 
-3.644737 -2.000000 -6.736842 33 26 23 
-3.631579 -2.000000 -6.736842 32 27 23 
-3.666667 -2.026667 -6.826667 32 28 24 
-3.605263 -2.000000 -6.736842 33 28 25 
-3.545455 -1.974026 -6.649351 32 27 24 
-3.400000 -1.900000 -6.400000 31 26 23 
-3.011765 -1.788235 -6.023530 38 36 27 
-2.965116 -1.767442 -5.953488 37 34 25 
-3.060241 -1.831325 -6.168674 31 28 18 
-3.085366 -1.853659 -6.243902 28 24 10 
-3.073171 -1.853659 -6.243902 47 43 17 
-3.098765 -1.876543 -6.320988 127 122 74 
-3.048780 -1.853659 -6.243902 156 151 86 
-3.074074 -1.876543 -6.320988 137 134 59 
-3.179487 -1.948718 -6.564103 137 134 58 
-3.087500 -1.900000 -6.400000 136 133 58 
-3.236842 -2.000000 -6.736842 137 133 59 
-inf -inf -inf 146 144 69 
-inf -inf -inf 146 144 69 
-inf -inf -inf 147 145 71 
-inf -inf -inf 150 146 73 
-3.920000 -6.080000 -20.480000 155 152 88 
-3.880000 -6.080000 -20.480000 123 121 64 
-4.000000 -6.333333 -21.333334 49 49 7 
-4.130435 -6.608696 -22.260870 27 27 3 
-3.760000 -6.080000 -20.480000 33 31 14 
-3.576923 -5.846154 -19.692308 34 31 24 
-3.407408 -5.629630 -18.962963 32 29 22 
-3.370370 -5.629630 -18.962963 34 31 23 
-3.750000 -6.333333 -21.333334 34 32 17 
-3.560000 -6.080000 -20.480000 32 30 14 
-3.625000 -6.333333 -21.333334 31 28 19 
-2.375000 -9.500000 -32.000000 99 96 43 
-2.642857 -10.857142 -36.571430 99 96 43 
-2.571429 -10.857142 -36.571430 100 97 46 
-2.500000 -10.857142 -36.571430 102 98 47 
-2.833333 -12.666667 -42.666668 102 97 46 
-3.300000 -15.200000 -51.200001 100 95 46 
-0.111702 -0.808511 -2.723404 93 96 42 
-0.233333 -2.533333 -8.533334 26 27 21 
-0.220339 -2.576271 -8.677966 24 25 21 
-0.203390 -2.576271 -8.677966 23 23 24 
-0.196429 -2.714286 -9.142858 23 23 25 
-0.175439 -2.666667 -8.982456 23 23 25 
-0.160714 -2.714286 -9.142858 24 24 23 
-0.140351 -2.666667 -8.982456 24 24 22 
-0.122807 -2.666667 -8.982456 24 23 22 
1.040816 -3.102041 -10.448979 80 77 32 
1.019608 -2.980392 -10.039216 80 77 32 
1.019231 -2.923077 -9.846154 80 78 32 
1.000000 -2.814815 -9.481482 81 79 33 
0.948276 -2.620690 -8.827586 81 79 32 
0.933333 -2.533333 -8.533334 79 78 30 
0.982759 -2.620690 -8.827586 78 77 29 
5.937500 -9.500000 -32.000000 74 73 31 
0.842857 -1.085714 -3.657143 73 70 31 
0.850000 -1.085714 -3.657143 73 69 31 
0.857143 -1.085714 -3.657143 73 70 32 
0.870504 -1.093525 -3.683453 73 71 32 
3.222222 -3.377778 -11.377778 75 73 34 
3.395349 -3.534884 -11.906977 76 74 35 
7.333333 -7.238095 -24.380953 76 73 33 
6.739130 -6.608696 -22.260870 74 73 34 
7.800000 -7.600000 -25.600000 73 73 34 
7.136364 -6.909091 -23.272728 73 72 33 
6.076923 -5.846154 -19.692308 74 72 33 
6.625000 -6.333333 -21.333334 75 73 34 
4.450000 -3.800000 -12.800000 74 72 29 
4.068182 -3.454545 -11.636364 74 73 31 
20.166666 -12.666667 -42.666668 71 68 35 
13.500000 -8.444445 -28.444445 71 68 35 
12.200000 -7.600000 -25.600000 69 66 32 
3.315789 -2.000000 -6.736842 69 66 33 
3.328947 -2.000000 -6.736842 70 67 33 
3.256410 -1.948718 -6.564103 71 68 35 
